# .PCD v0.7 - Point Cloud Data file format
VERSION 0.7
FIELDS x y z rgba
SIZE 4 4 4 4
TYPE F F F U
COUNT 1 1 1 1
WIDTH 1107
HEIGHT 1
VIEWPOINT 0 0 0 1 0 0 0
POINTS 1107
DATA ascii
-0.013598436 -0.024388492 1.072 4294925402
-0.011714717 -0.02436574 1.071 4294926686
-0.0098436857 -0.02436574 1.071 4294927202
-0.0079652108 -0.024342991 1.0700001 4294927715
-0.0060959253 -0.024342991 1.0700001 4294928229
-0.0042266403 -0.024342991 1.0700001 4294929258
-0.0023573553 -0.024342991 1.0700001 4294930028
-0.00048807031 -0.024342991 1.0700001 4294929260
0.0013812147 -0.024342991 1.0700001 4294927720
0.0032504997 -0.024342991 1.0700001 4294926948
0.0051197847 -0.024342991 1.0700001 4294927204
0.0069890697 -0.024342991 1.0700001 4294927459
0.0088666333 -0.02436574 1.071 4294926432
0.010747692 -0.024388492 1.072 4293811290
0.012632242 -0.024411241 1.073 4291383886
0.014641966 -0.024638744 1.0829999 4287185211
0.016610298 -0.0247525 1.0880001 4290664785
0.018545056 -0.024798 1.09 4291977303
0.020486802 -0.024843501 1.092 4291778387
0.02247655 -0.0249345 1.096 4287445304
-0.019360181 -0.022687552 1.08 4287180337
-0.017408708 -0.022603525 1.076 4291183942
-0.015485645 -0.022540502 1.073 4293677907
-0.013598436 -0.022519497 1.072 4294859612
-0.011714717 -0.022498488 1.071 4294926174
-0.0098344954 -0.022477483 1.0700001 4294926689
-0.0079652108 -0.022477483 1.0700001 4294926946
-0.0060959253 -0.022477483 1.0700001 4294927204
-0.0042266403 -0.022477483 1.0700001 4294928488
-0.0023573553 -0.022477483 1.0700001 4294928488
-0.00048807031 -0.022477483 1.0700001 4294926949
0.0013812147 -0.022477483 1.0700001 4294925667
0.0032504997 -0.022477483 1.0700001 4294925409
0.0051197847 -0.022477483 1.0700001 4294926435
0.0069890697 -0.022477483 1.0700001 4294926690
0.0088666333 -0.022498488 1.071 4294860382
0.010737665 -0.022498488 1.071 4293744727
0.012632242 -0.022540502 1.073 4291317580
0.014560848 -0.022624532 1.077 4286854708
0.01659503 -0.022834601 1.087 4290665298
0.01852804 -0.022876615 1.089 4292765020
0.020449281 -0.022897623 1.09 4292631896
0.022394521 -0.022939637 1.092 4292171604
-0.021699417 -0.021247672 1.103 4288493883
-0.019718703 -0.021189881 1.1 4290657345
-0.017408708 -0.020727556 1.076 4290133569
-0.015485645 -0.020669764 1.073 4292627789
-0.013598436 -0.020650502 1.072 4294268248
-0.011714717 -0.020631239 1.071 4294793564
-0.0098344954 -0.020611975 1.0700001 4294925407
-0.0079652108 -0.020611975 1.0700001 4294924896
-0.0060959253 -0.020611975 1.0700001 4294925408
-0.0042266403 -0.020611975 1.0700001 4294925664
-0.0023595584 -0.020631239 1.071 4294925664
-0.00048852642 -0.020631239 1.071 4294792795
0.0013825054 -0.020631239 1.071 4294856794
0.0032504997 -0.020611975 1.0700001 4294923610
0.0051197847 -0.020611975 1.0700001 4294925663
0.0069890697 -0.020611975 1.0700001 4294925663
0.0088666333 -0.020631239 1.071 4294859867
0.010737665 -0.020631239 1.071 4293744214
0.012632242 -0.020669764 1.073 4291972941
0.014547328 -0.020727556 1.076 4288166714
0.016564498 -0.020900929 1.085 4290862164
0.018494014 -0.020939454 1.087 4292765789
0.020430518 -0.020977981 1.089 4293354845
0.022353506 -0.020997247 1.09 4293156442
0.024302239 -0.021035772 1.092 4290399305
-0.021660069 -0.019289589 1.101 4289674558
-0.019700775 -0.019254548 1.099 4290984768
-0.017424889 -0.018869108 1.077 4288624440
-0.015500078 -0.018816547 1.074 4291971403
-0.013598436 -0.018781507 1.072 4293612116
-0.011714717 -0.018763987 1.071 4294268248
-0.0098436857 -0.018763987 1.071 4294924381
-0.007972654 -0.018763987 1.071 4294923610
-0.0061016222 -0.018763987 1.071 4294857816
-0.0042305901 -0.018763987 1.071 4294660950
-0.0023595584 -0.018763987 1.071 4294595414
-0.00048898259 -0.018781507 1.072 4293478991
0.0013825054 -0.018763987 1.071 4293673805
0.0032535372 -0.018763987 1.071 4294397010
0.0051245694 -0.018763987 1.071 4294923865
0.0069956011 -0.018763987 1.071 4294924891
0.0088666333 -0.018763987 1.071 4294531673
0.010747692 -0.018781507 1.072 4293809236
0.012632242 -0.018799027 1.073 4291906634
0.014547328 -0.018851588 1.076 4289676097
0.016533962 -0.018974228 1.0829999 4289285705
0.018476998 -0.019026788 1.086 4292241243
0.020392997 -0.019044308 1.087 4293159005
0.02231249 -0.01906183 1.0880001 4293551197
0.024257731 -0.01909687 1.09 4293615707
0.026209958 -0.019131908 1.092 4289283651
-0.023626354 -0.017401587 1.103 4290331714
-0.021640398 -0.017354257 1.1 4290592832
-0.019682851 -0.017322706 1.098 4290918975
-0.017748469 -0.017306928 1.097 4290458427
-0.015514511 -0.016959844 1.075 4289936959
-0.013611119 -0.016928289 1.073 4291774537
-0.011725657 -0.016912512 1.072 4292693326
-0.0098528778 -0.016912512 1.072 4293611346
-0.007980098 -0.016912512 1.072 4293413711
-0.0061073196 -0.016912512 1.072 4293085260
-0.0042345403 -0.016912512 1.072 4292494664
-0.0023639644 -0.016928289 1.073 4292034885
-0.00048943871 -0.016928289 1.073 4291902530
0.0013850871 -0.016928289 1.073 4291704383
0.0032565754 -0.016912512 1.072 4292426821
0.0051293541 -0.016912512 1.072 4293479248
0.0070021334 -0.016912512 1.072 4294071381
0.0088749118 -0.016912512 1.072 4294202966
0.010747692 -0.016912512 1.072 4293415248
0.012644015 -0.016944066 1.074 4292365901
0.014547328 -0.016975619 1.076 4291053897
0.016503429 -0.017054502 1.081 4288101436
0.018442972 -0.017101832 1.084 4290796624
0.020374237 -0.017133385 1.086 4293159775
0.022291983 -0.017149162 1.087 4292961114
0.024190966 -0.017149162 1.087 4293025368
0.026137952 -0.017180715 1.089 4292171090
0.028117677 -0.017228045 1.092 4288168768
-0.025622789 -0.015520644 1.1059999 4288427576
-0.023583511 -0.015450479 1.101 4290658626
-0.021620724 -0.015422412 1.099 4291182658
-0.019682851 -0.015408381 1.098 4291312193
-0.017732291 -0.015380313 1.096 4290786877
-0.015788719 -0.015352247 1.094 4289540921
-0.013649175 -0.01509965 1.076 4289805886
-0.011747533 -0.015071585 1.074 4290593089
-0.0098620681 -0.015057551 1.073 4292102473
-0.0079875421 -0.015057551 1.073 4292101447
-0.0061187134 -0.015071585 1.074 4291313730
-0.0042424407 -0.015071585 1.074 4291050559
-0.002368371 -0.015085618 1.075 4290130487
-0.000490351 -0.015085618 1.075 4288751405
0.001387669 -0.015085618 1.075 4288947757
0.0032626509 -0.015071585 1.074 4291244346
0.0051341387 -0.015057551 1.073 4291968837
0.0070086648 -0.015057551 1.073 4293611088
0.0088831903 -0.015057551 1.073 4293677137
0.010757716 -0.015057551 1.073 4293480785
0.012644015 -0.015071585 1.074 4293415505
0.014547328 -0.01509965 1.076 4293153364
0.016472895 -0.01514175 1.079 4289937988
0.018408945 -0.01518385 1.082 4289809991
0.020336716 -0.015211916 1.084 4291386962
0.022230458 -0.015211916 1.084 4291911507
0.024146456 -0.01522595 1.085 4292369748
0.026065946 -0.015239982 1.086 4292302930
0.028014684 -0.015268049 1.0880001 4290727754
-0.02555329 -0.013555504 1.103 4289148729
-0.023583511 -0.013530924 1.101 4290854466
-0.021620724 -0.013506345 1.099 4291706435
-0.019682851 -0.013494056 1.098 4291049023
-0.017732291 -0.013469475 1.096 4290130747
-0.015788719 -0.013444896 1.094 4289737786
-0.013826767 -0.013395738 1.09 4289081655
-0.011791284 -0.013248261 1.0779999 4287047212
-0.009898833 -0.013235972 1.077 4288032050
-0.0080098743 -0.013223683 1.076 4288490801
-0.006135805 -0.013235972 1.077 4287440171
-0.0042542913 -0.013235972 1.077 4286127137
-0.0023771834 -0.013260552 1.079 4286847520
-0.00049217558 -0.013260552 1.079 4288093990
0.0013915414 -0.013248261 1.0779999 4287962918
0.0032687266 -0.013223683 1.076 4289013038
0.005143709 -0.013211394 1.075 4290917949
0.0070151966 -0.013199103 1.074 4293282124
0.0088914698 -0.013199103 1.074 4293677137
0.010767743 -0.013199103 1.074 4294333782
0.012655789 -0.013211394 1.075 4294400089
0.014547328 -0.013223683 1.076 4294729310
0.016442362 -0.013235972 1.077 4292104784
0.018357903 -0.013260552 1.079 4290398534
0.020261673 -0.013272841 1.08 4290071108
0.022189442 -0.013297421 1.082 4290662985
0.024079692 -0.013297421 1.082 4291188045
0.025993941 -0.01330971 1.0829999 4291449934
0.027911687 -0.013321999 1.084 4291056204
0.029887917 -0.013358869 1.087 4289415749
-0.027505137 -0.011643007 1.104 4289935933
-0.025506953 -0.011611369 1.101 4289738298
-0.023562092 -0.011600823 1.1 4291837252
-0.021620724 -0.011590277 1.099 4291639360
-0.019664925 -0.011569184 1.097 4290719803
-0.017732291 -0.011558638 1.096 4290130490
-0.015774289 -0.011527 1.0930001 4289671992
-0.013839452 -0.011505906 1.091 4290000443
-0.011900666 -0.011474269 1.0880001 4290525246
-0.0099907443 -0.011463722 1.087 4289803065
-0.0080768717 -0.011442631 1.085 4289737271
-0.0061756847 -0.011432083 1.084 4289015348
-0.0042779916 -0.011421537 1.0829999 4290196794
-0.0023859958 -0.011421537 1.0829999 4291311934
-0.00049354398 -0.011410992 1.082 4291376957
0.001395414 -0.011400444 1.081 4289079086
0.0032778401 -0.011379353 1.079 4288094247
0.0051532784 -0.01135826 1.077 4289801269
0.0070217289 -0.011337169 1.075 4292822346
0.0088997493 -0.011337169 1.075 4293808210
0.010777769 -0.011337169 1.075 4294728539
0.012655789 -0.011337169 1.075 4294927714
0.014547328 -0.011347714 1.076 4294927457
0.016427094 -0.011347714 1.076 4294600032
0.018323876 -0.01135826 1.077 4294206558
0.02022415 -0.011368806 1.0779999 4293221720
0.022107409 -0.011368806 1.0779999 4291055179
0.024012927 -0.011379353 1.079 4290792777
0.025921937 -0.011389899 1.08 4291646030
0.02783444 -0.011400444 1.081 4291711823
0.029777933 -0.011421537 1.0829999 4291318864
0.031728417 -0.011442631 1.085 4287446587
-0.029380498 -0.0097006168 1.102 4288164147
-0.027405482 -0.009683012 1.1 4289082678
-0.025483787 -0.009683012 1.1 4292757322
-0.023540672 -0.0096742082 1.099 4291903042
-0.021601051 -0.0096654063 1.098 4291376445
-0.019664925 -0.0096566034 1.097 4290391096
-0.017716112 -0.0096389977 1.095 4289801526
-0.015774289 -0.0096213929 1.0930001 4290065722
-0.013839452 -0.0096037863 1.091 4290918976
-0.011911604 -0.0095861815 1.089 4291838022
-0.0099999355 -0.0095773786 1.0880001 4291510342
-0.0080843158 -0.0095597729 1.086 4292560458
-0.006187079 -0.0095597729 1.086 4292035400
-0.0042858925 -0.009550971 1.085 4293282384
-0.0023881991 -0.0095421672 1.084 4293282126
-0.00049445627 -0.0095421672 1.084 4292887626
0.0013979956 -0.0095333643 1.0829999 4291704896
0.0032839158 -0.0095157595 1.081 4289406767
0.0051628482 -0.0094981538 1.079 4288225578
0.0070347926 -0.009480549 1.077 4290196538
0.0089080269 -0.0094717452 1.076 4293480016
0.010777769 -0.0094629433 1.075 4294926174
0.012655789 -0.0094629433 1.075 4294927203
0.014533808 -0.0094629433 1.075 4294929000
0.016427094 -0.0094717452 1.076 4294929256
0.018306861 -0.0094717452 1.076 4294930025
0.020186629 -0.0094717452 1.076 4294601059
0.022086903 -0.009480549 1.077 4293681757
0.023968417 -0.009480549 1.077 4293812830
0.025873931 -0.009489351 1.0779999 4292959321
0.027782943 -0.0094981538 1.079 4292564821
0.029695448 -0.0095069567 1.08 4292368469
0.031611443 -0.0095157595 1.081 4290531405
-0.033049945 -0.0077369623 1.096 4288033588
-0.031106832 -0.0077299038 1.095 4287376686
-0.029220531 -0.0077369623 1.096 4289082165
-0.027330739 -0.0077440222 1.097 4288360497
-0.025437454 -0.0077510816 1.098 4290657341
-0.023519253 -0.0077510816 1.098 4292559942
-0.021601051 -0.0077510816 1.098 4292097856
-0.019664925 -0.0077440222 1.097 4290521397
-0.017716112 -0.0077299038 1.095 4288684588
-0.015774289 -0.0077157854 1.0930001 4289408821
-0.013839452 -0.0077016661 1.091 4291116097
-0.011911604 -0.0076875477 1.089 4291838279
-0.0099999355 -0.0076804888 1.0880001 4291969865
-0.0080917599 -0.0076734293 1.087 4293085777
-0.006187079 -0.0076663699 1.086 4293414483
-0.0042858925 -0.0076593109 1.085 4293808471
-0.0023904024 -0.0076593109 1.085 4293939543
-0.00049445627 -0.0076522515 1.084 4293873492
0.0013992866 -0.0076522515 1.084 4293609807
0.0032899915 -0.0076451916 1.0829999 4291311422
0.0051724175 -0.0076310732 1.081 4289537841
0.0070478558 -0.0076169549 1.079 4288422956
0.0089163063 -0.0076028369 1.077 4291706435
0.010787794 -0.007595777 1.076 4294661465
0.012667561 -0.007595777 1.076 4294925151
0.014547328 -0.007595777 1.076 4294927206
0.01641183 -0.0075887186 1.075 4294928488
0.018289849 -0.0075887186 1.075 4294929258
0.020167869 -0.0075887186 1.075 4294928487
0.022066396 -0.007595777 1.076 4294796903
0.023946162 -0.007595777 1.076 4294666086
0.025825929 -0.007595777 1.076 4294141283
0.027731447 -0.0076028369 1.077 4293615968
0.029640453 -0.0076098954 1.0779999 4293156189
0.031552959 -0.0076169549 1.079 4291975256
0.033499945 -0.0076310732 1.081 4290335569
-0.03684571 -0.0058208094 1.095 4288100409
-0.034805141 -0.0057995459 1.091 4290462529
-0.032869015 -0.0057942304 1.09 4290658624
-0.030993197 -0.0057995459 1.091 4290329660
-0.029113889 -0.0058048619 1.092 4289213494
-0.027231084 -0.0058101779 1.0930001 4288753972
-0.025391117 -0.0058261249 1.096 4287901488
-0.023497831 -0.0058314409 1.097 4291575872
-0.021601051 -0.0058367569 1.098 4292427585
-0.019664925 -0.0058314409 1.097 4290455602
-0.017732291 -0.0058261249 1.096 4288485926
-0.015774289 -0.0058101779 1.0930001 4289275696
-0.013839452 -0.0057995459 1.091 4290721597
-0.011911604 -0.0057889144 1.089 4291969095
-0.0099999355 -0.0057835989 1.0880001 4292560204
-0.0080917599 -0.0057782829 1.087 4292954449
-0.0061927764 -0.0057782829 1.087 4293348692
-0.0042898422 -0.0057729669 1.086 4293743192
-0.0023904024 -0.0057676514 1.085 4294202716
-0.00049491244 -0.0057676514 1.085 4294268251
0.0013992866 -0.0057623354 1.084 4294333527
0.0032899915 -0.0057570194 1.0829999 4293085003
0.0051819873 -0.0057570194 1.0829999 4291835457
0.0070609194 -0.0057463879 1.081 4289734193
0.0089328634 -0.0057357564 1.079 4289079088
0.010807846 -0.0057304404 1.0779999 4291180864
0.012679334 -0.0057251249 1.077 4293610580
0.014547328 -0.0057198089 1.076 4294728030
0.01641183 -0.0057144933 1.075 4294926693
0.018289849 -0.0057144933 1.075 4294927721
0.020167869 -0.0057144933 1.075 4294927464
0.022045888 -0.0057144933 1.075 4294926952
0.023923909 -0.0057144933 1.075 4294927465
0.025801929 -0.0057144933 1.075 4294861928
0.027705695 -0.0057198089 1.076 4294337381
0.02961296 -0.0057251249 1.077 4293812322
0.031523716 -0.0057304404 1.0779999 4293484642
0.033437967 -0.0057357564 1.079 4290794068
0.035486657 -0.0057623354 1.084 4285870386
-0.036677465 -0.0038938534 1.09 4290332740
-0.034709439 -0.0038867088 1.0880001 4292038730
-0.03277855 -0.0038831362 1.087 4291447109
-0.030907976 -0.0038867088 1.0880001 4290789696
-0.029033905 -0.0038902808 1.089 4290066747
-0.027181255 -0.0038974255 1.091 4289541688
-0.025321618 -0.0039045706 1.0930001 4288820789
-0.023476411 -0.0039152871 1.096 4288951859
-0.021581378 -0.0039188596 1.097 4290328630
-0.019664925 -0.0039188596 1.097 4290062126
-0.017732291 -0.0039152871 1.096 4288157474
-0.015788719 -0.0039081424 1.094 4288420646
-0.013839452 -0.0038974255 1.091 4289866804
-0.011922542 -0.0038938534 1.09 4291049535
-0.010009126 -0.0038902808 1.089 4292428105
-0.0080992049 -0.0038867088 1.0880001 4292953678
-0.0061927764 -0.0038831362 1.087 4293282130
-0.0042898422 -0.0038795639 1.086 4293545301
-0.0023926054 -0.0038795639 1.086 4293939546
-0.00049491244 -0.0038759918 1.085 4294333789
0.0013992866 -0.0038724192 1.084 4294530909
0.0032930295 -0.0038724192 1.084 4294070613
0.0051867724 -0.0038724192 1.084 4293346635
0.0070739831 -0.0038688467 1.0829999 4290719288
0.0089577008 -0.0038652746 1.082 4288553002
0.010827898 -0.00385813 1.08 4289078318
0.012691107 -0.0038509851 1.0779999 4291508289
0.014560848 -0.003847413 1.077 4292888399
0.016427094 -0.0038438404 1.076 4293874520
0.018289849 -0.0038402684 1.075 4294793824
0.020167869 -0.0038402684 1.075 4294925667
0.022045888 -0.0038402684 1.075 4294860132
0.023923909 -0.0038402684 1.075 4294729317
0.025801929 -0.0038402684 1.075 4294861158
0.027705695 -0.0038438404 1.076 4294598757
0.029585462 -0.0038438404 1.076 4294401892
0.031494472 -0.003847413 1.077 4293811810
0.033437967 -0.0038545574 1.079 4291514966
0.035421185 -0.0038652746 1.082 4288955717
-0.038617086 -0.0019953051 1.091 4288626494
-0.036576517 -0.0019879898 1.087 4291908942
-0.034613732 -0.001984332 1.085 4293024595
-0.032718241 -0.001984332 1.085 4293351505
-0.030822752 -0.001984332 1.085 4292431690
-0.028980583 -0.0019879898 1.087 4291117121
-0.027131427 -0.0019916475 1.089 4289804346
-0.025275283 -0.0019953051 1.091 4289083189
-0.023433572 -0.002000792 1.094 4288427313
-0.021561705 -0.0020044495 1.096 4290787893
-0.019664925 -0.0020062786 1.097 4290784815
-0.017732291 -0.0020044495 1.096 4289273127
-0.015788719 -0.002000792 1.094 4287961120
-0.013852137 -0.0019971342 1.092 4290127663
-0.011922542 -0.0019934764 1.09 4291441724
-0.010009126 -0.0019916475 1.089 4292361797
-0.0080992049 -0.0019898186 1.0880001 4292952650
-0.0061927764 -0.0019879898 1.087 4293412944
-0.0042937924 -0.0019879898 1.087 4293478994
-0.0023926054 -0.0019861609 1.086 4293676116
-0.00049491244 -0.001984332 1.085 4294004826
0.0014005775 -0.001984332 1.085 4294202203
0.0032960675 -0.001984332 1.085 4294333016
0.0051867724 -0.0019825031 1.084 4293281867
0.0070805149 -0.0019825031 1.084 4292097855
0.0089742579 -0.0019825031 1.084 4290389554
0.010847949 -0.0019788453 1.082 4287632930
0.012714653 -0.0019751876 1.08 4288225065
0.014574367 -0.0019715298 1.0779999 4291179582
0.016442362 -0.0019697009 1.077 4292165961
0.018306861 -0.001967872 1.076 4293807701
0.020186629 -0.001967872 1.076 4294530652
0.022045888 -0.0019660434 1.075 4294728288
0.023923909 -0.0019660434 1.075 4294729058
0.025801929 -0.0019660434 1.075 4294598499
0.027705695 -0.001967872 1.076 4294532451
0.029585462 -0.001967872 1.076 4294204513
0.031494472 -0.0019697009 1.077 4293285468
0.033437967 -0.0019733587 1.079 4292104790
0.035388447 -0.0019770165 1.081 4289151811
-0.0385109 -9.2928647e-05 1.0880001 4289152065
-0.03650922 -9.267241e-05 1.085 4292696916
-0.034581829 -9.258699e-05 1.084 4293681240
-0.032657929 -9.250157e-05 1.0829999 4294337112
-0.030794341 -9.258699e-05 1.084 4293088847
-0.028927261 -9.267241e-05 1.085 4291511620
-0.027081599 -9.2843227e-05 1.087 4289410615
-0.025228949 -9.3014052e-05 1.089 4288820532
-0.023390731 -9.327029e-05 1.092 4288230704
-0.021542031 -9.3526527e-05 1.095 4290000947
-0.019646997 -9.3611932e-05 1.096 4291049011
-0.017732291 -9.3611932e-05 1.096 4289995819
-0.015803153 -9.3526527e-05 1.095 4288552741
-0.013852137 -9.327029e-05 1.092 4289341227
-0.011933479 -9.3184877e-05 1.091 4291704635
-0.010018318 -9.3099465e-05 1.09 4292821575
-0.008106648 -9.3014052e-05 1.089 4293675600
-0.0061984737 -9.2928647e-05 1.0880001 4293938515
-0.0042937924 -9.2843227e-05 1.087 4293872978
-0.0023926054 -9.2757815e-05 1.086 4293741393
-0.0004953685 -9.2757815e-05 1.086 4294004053
0.0014005775 -9.267241e-05 1.085 4294004310
0.0032960675 -9.267241e-05 1.085 4294004053
0.0051915571 -9.267241e-05 1.085 4293543757
0.0070870472 -9.267241e-05 1.085 4292950850
0.0089825373 -9.267241e-05 1.085 4290980147
0.010878027 -9.267241e-05 1.085 4289403944
0.012761744 -9.258699e-05 1.084 4287107869
0.014601408 -9.2245347e-05 1.08 4287962150
0.016457628 -9.2074515e-05 1.0779999 4290522937
0.018323876 -9.1989103e-05 1.077 4292756042
0.020186629 -9.190369e-05 1.076 4293085263
0.022066396 -9.190369e-05 1.076 4294464602
0.023946162 -9.190369e-05 1.076 4294662494
0.025825929 -9.190369e-05 1.076 4294663008
0.027705695 -9.190369e-05 1.076 4294400607
0.02961296 -9.1989103e-05 1.077 4293810012
0.031494472 -9.1989103e-05 1.077 4293088086
0.033437967 -9.2159928e-05 1.079 4291053900
0.035421185 -9.2416165e-05 1.082 4288232249
-0.038440105 0.0018006451 1.086 4290661705
-0.036441918 0.0017956709 1.0829999 4292893782
-0.034518026 0.0017940131 1.082 4294928479
-0.032627776 0.0017940131 1.082 4294928477
-0.030737527 0.0017940131 1.082 4294205013
-0.028873937 0.0017956709 1.0829999 4292168521
-0.027031772 0.0017989873 1.085 4290264125
-0.025205784 0.0018039615 1.0880001 4288820018
-0.02336931 0.0018089354 1.091 4288230190
-0.021522358 0.0018139096 1.094 4288361517
-0.019646997 0.0018172257 1.096 4289606189
-0.017732291 0.0018172257 1.096 4290457136
-0.015803153 0.0018155677 1.095 4290849328
-0.013864823 0.0018122516 1.0930001 4289670192
-0.011933479 0.0018089354 1.091 4291508797
-0.010018318 0.0018072774 1.09 4292756809
-0.008106648 0.0018056193 1.089 4293938516
-0.0061984737 0.0018039615 1.0880001 4294398295
-0.0042937924 0.0018023034 1.087 4294660953
-0.0023948085 0.0018023034 1.087 4294463573
-0.0004953685 0.0018006451 1.086 4294200404
0.0014018683 0.0018006451 1.086 4294134611
0.003299105 0.0018006451 1.086 4294003538
0.0051963418 0.0018006451 1.086 4293805646
0.0070935786 0.0018006451 1.086 4293016899
0.0089908158 0.0018006451 1.086 4292292920
0.010898079 0.0018023034 1.087 4291962161
0.012785289 0.0018006451 1.086 4289796392
0.014655487 0.0017973292 1.084 4287697951
0.016503429 0.001792355 1.081 4288486953
0.018357903 0.0017890389 1.079 4291179069
0.02022415 0.0017873808 1.0779999 4292690248
0.022086903 0.0017857228 1.077 4294135124
0.023946162 0.0017840647 1.076 4294333015
0.025825929 0.0017840647 1.076 4294661979
0.027731447 0.0017857228 1.077 4294399579
0.02961296 0.0017857228 1.077 4294071641
0.031523716 0.0017873808 1.0779999 4292233805
0.033468958 0.001790697 1.08 4290330691
-0.038369313 0.0036872453 1.084 4290201670
-0.036408272 0.0036804422 1.082 4293746010
-0.034518026 0.0036804422 1.082 4294927969
-0.03259762 0.0036770406 1.081 4294928224
-0.030709118 0.0036770406 1.081 4294861659
-0.028847277 0.0036804422 1.082 4293481553
-0.027006855 0.0036872453 1.084 4290920512
-0.025159447 0.0036940482 1.086 4289147700
-0.023326471 0.0037042529 1.089 4288032812
-0.021502687 0.003717859 1.0930001 4287705387
-0.019629072 0.0037246621 1.095 4289934384
-0.017716112 0.0037246621 1.095 4290128687
-0.015803153 0.0037246621 1.095 4290653232
-0.013864823 0.003717859 1.0930001 4289998130
-0.011933479 0.0037110557 1.091 4291115325
-0.010018318 0.0037076545 1.09 4292625481
-0.008106648 0.0037042529 1.089 4293872724
-0.0061984737 0.0037008515 1.0880001 4294529369
-0.0042937924 0.0036974498 1.087 4294791771
-0.0023948085 0.0036974498 1.087 4294791514
-0.00049582467 0.0036974498 1.087 4294659671
0.0014018683 0.0036940482 1.086 4294659671
0.003299105 0.0036940482 1.086 4294331475
0.0051963418 0.0036940482 1.086 4294134351
0.0071001109 0.0036974498 1.087 4293542472
0.0089990944 0.0036974498 1.087 4293080895
0.010908104 0.0037008515 1.0880001 4292684856
0.012797062 0.0036974498 1.087 4291765046
0.014682526 0.0036940482 1.086 4288747815
0.01654923 0.0036872453 1.084 4287765028
0.018374918 0.0036736394 1.08 4289276209
0.020242911 0.0036702377 1.079 4292164675
0.022107409 0.0036668361 1.0779999 4293740879
0.023968417 0.0036634346 1.077 4294923610
0.025849931 0.0036634346 1.077 4294924635
0.027731447 0.0036634346 1.077 4294924637
0.029640453 0.0036668361 1.0779999 4294464600
0.031552959 0.0036702377 1.079 4293085775
0.033499945 0.0036770406 1.081 4289674046
-0.038369313 0.0055771614 1.084 4290857802
-0.036408272 0.0055668713 1.082 4293613911
-0.034486122 0.0055617262 1.081 4294926432
-0.03259762 0.0055617262 1.081 4294927200
-0.030709118 0.0055617262 1.081 4294860633
-0.028847277 0.0055668713 1.082 4293547345
-0.02698194 0.0055720159 1.0829999 4291379522
-0.025136281 0.0055823065 1.085 4289606709
-0.023305053 0.0055977418 1.0880001 4288098092
-0.021483013 0.0056183212 1.092 4288098861
-0.019611146 0.005628611 1.094 4290197300
-0.017716112 0.0056337565 1.095 4290391602
-0.015788719 0.005628611 1.094 4290128177
-0.013864823 0.0056234663 1.0930001 4290260532
-0.011933479 0.0056131762 1.091 4291311934
-0.010018318 0.0056080315 1.09 4292559689
-0.008106648 0.0056028864 1.089 4293610322
-0.0061984737 0.0055977418 1.0880001 4294660186
-0.0042937924 0.0055925963 1.087 4294922588
-0.0023948085 0.0055925963 1.087 4294923101
-0.00049582467 0.0055925963 1.087 4294922329
0.0014031592 0.0055925963 1.087 4294922585
0.003302143 0.0055925963 1.087 4294791512
0.0052011269 0.0055925963 1.087 4294594131
0.0071001109 0.0055925963 1.087 4294134095
0.0089990944 0.0055925963 1.087 4293475396
0.010908104 0.0055977418 1.0880001 4292948285
0.012808836 0.0055977418 1.0880001 4292750656
0.014696046 0.0055925963 1.087 4291702073
0.01654923 0.0055771614 1.084 4288750635
0.01839193 0.0055617262 1.081 4291442237
0.020261673 0.0055565815 1.08 4293216074
0.022107409 0.0055462914 1.0779999 4294726741
0.02399067 0.0055462914 1.0779999 4294926686
0.025873931 0.0055462914 1.0779999 4294927712
0.027757192 0.0055462914 1.0779999 4294927970
0.029640453 0.0055462914 1.0779999 4294925660
0.031582203 0.0055565815 1.08 4292431179
0.033530936 0.0055668713 1.082 4290462273
-0.038369313 0.0074670776 1.084 4291382603
-0.036408272 0.0074533005 1.082 4293481813
-0.034486122 0.007446412 1.081 4294859868
-0.032567468 0.0074395239 1.08 4294926688
-0.030709118 0.007446412 1.081 4294926684
-0.028820615 0.007446412 1.081 4294466132
-0.026957028 0.0074533005 1.082 4292495431
-0.025136281 0.0074739661 1.085 4290262840
-0.023305053 0.0074946317 1.0880001 4288557102
-0.021463338 0.0075152963 1.091 4288361262
-0.01959322 0.0075290739 1.0930001 4289016367
-0.017699933 0.0075359619 1.094 4291441720
-0.015774289 0.0075290739 1.0930001 4291112758
-0.013852137 0.0075221853 1.092 4290719799
-0.011933479 0.0075152963 1.091 4291115069
-0.010009126 0.0075015198 1.089 4292756553
-0.008106648 0.0075015198 1.089 4293741393
-0.0061984737 0.0074946317 1.0880001 4294660185
-0.0042937924 0.0074877427 1.087 4294922844
-0.0023948085 0.0074877427 1.087 4294923101
-0.00049582467 0.0074877427 1.087 4294922844
0.0014031592 0.0074877427 1.087 4294922844
0.003302143 0.0074877427 1.087 4294922842
0.0052011269 0.0074877427 1.087 4294791254
0.0071001109 0.0074877427 1.087 4294199888
0.0090073738 0.0074946317 1.0880001 4293672519
0.010908104 0.0074946317 1.0880001 4293408322
0.012808836 0.0074946317 1.0880001 4292817987
0.014696046 0.0074877427 1.087 4290390838
0.01654923 0.0074670776 1.084 4288554797
0.01839193 0.007446412 1.081 4290525244
0.020242911 0.0074326354 1.079 4293020492
0.022107409 0.0074257464 1.0779999 4294793305
0.02399067 0.0074257464 1.0779999 4294927201
0.025873931 0.0074257464 1.0779999 4294928482
0.027757192 0.0074257464 1.0779999 4294928224
0.029640453 0.0074257464 1.0779999 4294860377
0.031582203 0.0074395239 1.08 4292825678
0.033530936 0.0074533005 1.082 4291053894
-0.038369313 0.0093569933 1.084 4291382859
-0.036408272 0.0093397303 1.082 4293876055
-0.034486122 0.0093310978 1.081 4294925147
-0.032567468 0.0093224663 1.08 4294925916
-0.030709118 0.0093310978 1.081 4294926427
-0.028820615 0.0093310978 1.081 4294728533
-0.026957028 0.0093397303 1.082 4292824137
-0.025113113 0.0093569933 1.084 4290722363
-0.023283631 0.0093828896 1.087 4288557101
-0.021443667 0.009408785 1.09 4288230189
-0.01959322 0.0094346814 1.0930001 4290657080
-0.017699933 0.0094433129 1.094 4291770939
-0.015774289 0.0094346814 1.0930001 4291703610
-0.013852137 0.009426049 1.092 4290654261
-0.011933479 0.0094174165 1.091 4291311420
-0.010009126 0.0094001526 1.089 4292231493
-0.0080992049 0.009391522 1.0880001 4293609808
-0.0061984737 0.009391522 1.0880001 4294397783
-0.0042937924 0.0093828896 1.087 4294923100
-0.0023948085 0.0093828896 1.087 4294923357
-0.00049582467 0.0093828896 1.087 4294923101
0.0014031592 0.0093828896 1.087 4294923100
0.003302143 0.0093828896 1.087 4294922585
0.0052011269 0.0093828896 1.087 4294659669
0.0071001109 0.0093828896 1.087 4294002253
0.0090073738 0.009391522 1.0880001 4293869386
0.010908104 0.009391522 1.0880001 4293737033
0.012797062 0.0093828896 1.087 4292293699
0.014682526 0.0093742572 1.086 4289538611
0.016533962 0.0093483608 1.0829999 4288490545
0.018374918 0.0093224663 1.08 4290329919
0.020242911 0.0093138339 1.079 4293546578
0.022107409 0.0093052015 1.0779999 4294596441
0.023968417 0.00929657 1.077 4294926690
0.025849931 0.00929657 1.077 4294927715
0.027731447 0.00929657 1.077 4294927202
0.029640453 0.0093052015 1.0779999 4294925403
0.031552959 0.0093138339 1.079 4293022290
0.033499945 0.0093310978 1.081 4291054153
-0.038369313 0.011246909 1.084 4289676866
-0.036408272 0.01122616 1.082 4293351764
-0.034486122 0.011215784 1.081 4294663514
-0.03259762 0.011215784 1.081 4294926427
-0.030709118 0.011215784 1.081 4294926683
-0.028820615 0.011215784 1.081 4294794070
-0.026957028 0.01122616 1.082 4293087050
-0.025113113 0.011246909 1.084 4291182141
-0.023283631 0.011278036 1.087 4288753709
-0.021443667 0.011309163 1.09 4288493104
-0.019575294 0.011329913 1.092 4290002488
-0.017683756 0.011340288 1.0930001 4292035137
-0.015774289 0.011340288 1.0930001 4292032573
-0.013852137 0.011329913 1.092 4290850870
-0.011933479 0.011319537 1.091 4291311163
-0.010009126 0.011298787 1.089 4292493125
-0.0080992049 0.011288412 1.0880001 4293478222
-0.0061984737 0.011288412 1.0880001 4293938259
-0.0042937924 0.011278036 1.087 4294594648
-0.0023948085 0.011278036 1.087 4294923100
-0.00049582467 0.011278036 1.087 4294857307
0.0014031592 0.011278036 1.087 4294922842
0.003302143 0.011278036 1.087 4294856535
0.0052011269 0.011278036 1.087 4294593619
0.0071001109 0.011278036 1.087 4294001740
0.0090073738 0.011288412 1.0880001 4294000202
0.010898079 0.011278036 1.087 4293803340
0.012797062 0.011278036 1.087 4291507519
0.014655487 0.011246909 1.084 4288293422
0.016503429 0.011215784 1.081 4290067005
0.018357903 0.011195033 1.079 4292102732
0.02022415 0.011184657 1.0779999 4293875287
0.022086903 0.011174282 1.077 4294925663
0.023968417 0.011174282 1.077 4294926691
0.025849931 0.011174282 1.077 4294926951
0.027731447 0.011174282 1.077 4294926436
0.02961296 0.011174282 1.077 4294925151
0.031523716 0.011184657 1.0779999 4292890195
0.033468958 0.011205409 1.08 4289937733
0.035584867 0.011278036 1.087 4285869100
-0.038440105 0.013161063 1.086 4289480258
-0.036441918 0.013124706 1.0829999 4291777357
-0.034518026 0.013112589 1.082 4293746006
-0.03259762 0.013100469 1.081 4294927454
-0.030709118 0.013100469 1.081 4294926683
-0.028820615 0.013100469 1.081 4294531412
-0.026957028 0.013112589 1.082 4293218379
-0.025113113 0.013136826 1.084 4291511103
-0.023283631 0.013173182 1.087 4289541425
-0.021443667 0.013209539 1.09 4289411894
-0.019575294 0.013233776 1.092 4290331709
-0.017683756 0.013245896 1.0930001 4291708226
-0.015774289 0.013245896 1.0930001 4292361537
-0.013852137 0.013233776 1.092 4291900474
-0.011933479 0.013221657 1.091 4291507257
-0.010009126 0.01319742 1.089 4292229441
-0.008106648 0.01319742 1.089 4293083465
-0.0061984737 0.013185302 1.0880001 4293674831
-0.0042937924 0.013173182 1.087 4294265682
-0.0023948085 0.013173182 1.087 4294725207
-0.00049582467 0.013173182 1.087 4294725207
0.0014031592 0.013173182 1.087 4294725208
0.003302143 0.013173182 1.087 4294724693
0.0052011269 0.013173182 1.087 4294461521
0.0071066427 0.013185302 1.0880001 4294198093
0.0090073738 0.013185302 1.0880001 4294197326
0.010898079 0.013173182 1.087 4293344587
0.012785289 0.013161063 1.086 4289343284
0.014641966 0.013124706 1.0829999 4288688692
0.016488163 0.013088351 1.08 4290855749
0.018357903 0.013076232 1.079 4293482070
0.02020539 0.013051994 1.077 4294926176
0.022086903 0.013051994 1.077 4294926948
0.023946162 0.013039875 1.076 4294927464
0.025825929 0.013039875 1.076 4294926953
0.027731447 0.013051994 1.077 4294925925
0.02961296 0.013051994 1.077 4294333788
0.031523716 0.013064113 1.0779999 4292824403
0.033468958 0.013088351 1.08 4289477954
0.035519395 0.013148945 1.085 4285606955
-0.0385109 0.015082192 1.0880001 4287642680
-0.036475569 0.015026742 1.084 4291515470
-0.034549925 0.015012879 1.0829999 4293616215
-0.032627776 0.014999017 1.082 4294599514
-0.030737527 0.014999017 1.082 4294861145
-0.028847277 0.014999017 1.082 4294072401
-0.02698194 0.015012879 1.0829999 4292430406
-0.025113113 0.015026742 1.084 4291642688
-0.023283631 0.015068329 1.087 4290460472
-0.021423994 0.015096053 1.089 4290199612
-0.019557366 0.015123778 1.091 4290791233
-0.017667575 0.015137641 1.092 4292365383
-0.015759856 0.015137641 1.092 4292559171
-0.013852137 0.015137641 1.092 4292097083
-0.011933479 0.015123778 1.091 4291637304
-0.010018318 0.015109916 1.09 4292425023
-0.008106648 0.015096053 1.089 4292688195
-0.0061984737 0.015082192 1.0880001 4293148744
-0.0042977426 0.015082192 1.0880001 4293608779
-0.0023948085 0.015068329 1.087 4294265168
-0.00049582467 0.015068329 1.087 4294462291
0.0014031592 0.015068329 1.087 4294330962
0.003302143 0.015068329 1.087 4294198863
0.0052011269 0.015068329 1.087 4294198349
0.0071066427 0.015082192 1.0880001 4294197838
0.0089990944 0.015068329 1.087 4293279562
0.010888052 0.015054466 1.086 4291377472
0.012761744 0.015026742 1.084 4289475638
0.014628448 0.014999017 1.082 4290264896
0.016488163 0.014971294 1.08 4292366159
0.018340889 0.014943567 1.0779999 4294532444
0.02020539 0.014929706 1.077 4294926947
0.022086903 0.014929706 1.077 4294926949
0.023946162 0.014915843 1.076 4294926950
0.025825929 0.014915843 1.076 4294926183
0.027731447 0.014929706 1.077 4294924384
0.02961296 0.014929706 1.077 4293021012
0.031552959 0.014957431 1.079 4291052617
0.033499945 0.014985154 1.081 4289347137
-0.038652483 0.017041504 1.092 4287117108
-0.036542866 0.016947869 1.086 4288824383
-0.034581829 0.016916659 1.084 4292566611
-0.032657929 0.016901052 1.0829999 4293681752
-0.030765932 0.016901052 1.0829999 4294008918
-0.028873937 0.016901052 1.0829999 4293810514
-0.027006855 0.016916659 1.084 4293153099
-0.025136281 0.016932264 1.085 4291708737
-0.023283631 0.016963476 1.087 4290789950
-0.021423994 0.016994687 1.089 4291315523
-0.019557366 0.017025897 1.091 4290856769
-0.017667575 0.017041504 1.092 4292562504
-0.015759856 0.017041504 1.092 4292822341
-0.013852137 0.017041504 1.092 4292359996
-0.011933479 0.017025897 1.091 4291767862
-0.010018318 0.017010294 1.09 4291571255
-0.008106648 0.016994687 1.089 4292228671
-0.0061984737 0.016979082 1.0880001 4293082949
-0.0042977426 0.016979082 1.0880001 4293281096
-0.0023948085 0.016963476 1.087 4293871692
-0.00049582467 0.016963476 1.087 4293937486
0.0014031592 0.016963476 1.087 4294002510
0.003302143 0.016963476 1.087 4294330702
0.0052011269 0.016963476 1.087 4294330702
0.0071001109 0.016963476 1.087 4294002511
0.0089990944 0.016963476 1.087 4292427847
0.010878027 0.016932264 1.085 4291181119
0.01274997 0.016901052 1.0829999 4289935932
0.014614927 0.016869841 1.081 4291643464
0.016472895 0.016838629 1.079 4293679191
0.018340889 0.016823024 1.0779999 4294925918
0.02020539 0.016807418 1.077 4294926435
0.022086903 0.016807418 1.077 4294926181
0.023968417 0.016807418 1.077 4294859617
0.025849931 0.016807418 1.077 4294661982
0.027731447 0.016807418 1.077 4293808472
0.029640453 0.016823024 1.0779999 4292168014
0.031582203 0.016854236 1.08 4290265155
0.033530936 0.016885446 1.082 4288100923
-0.036643814 0.01889332 1.089 4288233531
-0.034645632 0.018841272 1.086 4290597704
-0.032688085 0.018806575 1.084 4292041552
-0.030794341 0.018806575 1.084 4292893779
-0.028900599 0.018806575 1.084 4292957775
-0.027031772 0.018823924 1.085 4292694345
-0.025159447 0.018841272 1.086 4292431175
-0.023283631 0.018858623 1.087 4292234567
-0.021423994 0.01889332 1.089 4292497738
-0.019539442 0.018910671 1.09 4291382084
-0.017651396 0.018928017 1.091 4291643971
-0.015759856 0.018945368 1.092 4292166723
-0.013852137 0.018945368 1.092 4292425790
-0.011933479 0.018928017 1.091 4291702327
-0.010018318 0.018910671 1.09 4290915380
-0.008106648 0.01889332 1.089 4291508027
-0.0061984737 0.018875971 1.0880001 4291379007
-0.0042937924 0.018858623 1.087 4292035907
-0.0023948085 0.018858623 1.087 4292692039
-0.00049582467 0.018858623 1.087 4293020489
0.0014031592 0.018858623 1.087 4293019977
0.003302143 0.018858623 1.087 4293282380
0.0052011269 0.018858623 1.087 4293019722
0.0071001109 0.018858623 1.087 4292363079
0.0089908158 0.018841272 1.086 4291181633
0.010868001 0.018806575 1.084 4290394941
0.012738198 0.018771876 1.082 4290986820
0.014614927 0.018754525 1.081 4293218641
0.016472895 0.018719828 1.079 4294597980
0.018340889 0.018702477 1.0779999 4294794846
0.02022415 0.018702477 1.0779999 4294925666
0.022086903 0.01868513 1.077 4294859617
0.023968417 0.01868513 1.077 4294793310
0.025849931 0.01868513 1.077 4293611863
0.027757192 0.018702477 1.0779999 4292299343
0.029667951 0.018719828 1.079 4290264899
0.031611443 0.018754525 1.081 4288099897
0.033685885 0.018858623 1.087 4285935920
-0.036778413 0.020868326 1.0930001 4286723123
-0.034709439 0.020772861 1.0880001 4288824638
-0.03277855 0.020753769 1.087 4290596934
-0.030851157 0.020734675 1.086 4291646796
-0.028953921 0.020734675 1.086 4292629325
-0.027056683 0.020734675 1.086 4293678418
-0.025182614 0.020753769 1.087 4294072401
-0.023283631 0.020753769 1.087 4294663766
-0.02140432 0.020772861 1.0880001 4294072659
-0.019521516 0.020791953 1.089 4292431690
-0.017635217 0.020811047 1.09 4291643460
-0.015745424 0.020830138 1.091 4291772738
-0.013839452 0.020830138 1.091 4292491841
-0.011933479 0.020830138 1.091 4291112760
-0.010009126 0.020791953 1.089 4291047990
-0.0080992049 0.020772861 1.0880001 4289278514
-0.006187079 0.020734675 1.086 4288032814
-0.0042858925 0.020715583 1.085 4289214003
-0.0023904024 0.020715583 1.085 4288689202
-0.00049491244 0.020715583 1.085 4290723131
0.0014018683 0.020734675 1.086 4290919996
0.003299105 0.020734675 1.086 4291707202
0.0051963418 0.020734675 1.086 4291707204
0.0070870472 0.020715583 1.085 4291707205
0.0089742579 0.020696491 1.084 4292232264
0.010857974 0.020677397 1.0829999 4291642438
0.012738198 0.020658305 1.082 4292561997
0.014614927 0.020639211 1.081 4293349971
0.016488163 0.020620121 1.08 4294268762
0.018357903 0.020601027 1.079 4294597214
0.02022415 0.020581933 1.0779999 4294465886
0.022107409 0.020581933 1.0779999 4294202972
0.02399067 0.020581933 1.0779999 4292955732
0.025897935 0.020601027 1.079 4292102734
0.027808692 0.020620121 1.08 4290790215
0.029722942 0.020639211 1.081 4288821051
0.031728417 0.020715583 1.085 4286459440
-0.034837045 0.022753095 1.092 4288102204
-0.032838859 0.022690587 1.089 4290006085
-0.030907976 0.022669753 1.0880001 4291383626
-0.028980583 0.022648916 1.087 4292564046
-0.027081599 0.022648916 1.087 4294073429
-0.025182614 0.022648916 1.087 4294927450
-0.023283631 0.022648916 1.087 4294927194
-0.02140432 0.022669753 1.0880001 4294663511
-0.01950359 0.022669753 1.0880001 4293088078
-0.017619038 0.022690587 1.089 4291511619
-0.015730992 0.022711424 1.09 4290065977
-0.013826767 0.022711424 1.09 4289145648
-0.011911604 0.022690587 1.089 4288029992
-0.0099815521 0.022628078 1.086 4285538079
-0.0080619827 0.02256557 1.0829999 4286523688
-0.0061642905 0.022544734 1.082 4287311662
-0.0042740419 0.022544734 1.082 4289477434
-0.0023837928 0.022544734 1.082 4289674299
-0.00049354398 0.022544734 1.082 4289214263
0.0013979956 0.02256557 1.0829999 4289739066
0.0032899915 0.02256557 1.0829999 4290329405
0.0051867724 0.022586407 1.084 4291313987
0.0070805149 0.022586407 1.084 4292626252
0.0089659784 0.02256557 1.0829999 4292692301
0.010857974 0.02256557 1.0829999 4293939283
0.012738198 0.022544734 1.082 4294136663
0.014614927 0.022523897 1.081 4294267736
0.016488163 0.022503063 1.08 4294333787
0.018374918 0.022503063 1.08 4293874521
0.020242911 0.022482226 1.079 4293677143
0.022127919 0.022482226 1.079 4292889682
0.024035182 0.022503063 1.08 4291380297
0.025921937 0.022503063 1.08 4289805377
0.027860189 0.022544734 1.082 4288558394
0.029832926 0.022607243 1.085 4286261805
-0.032929327 0.024656959 1.092 4288889920
-0.030964792 0.024611801 1.09 4290792775
-0.029033905 0.02458922 1.089 4293154384
-0.027106514 0.024566643 1.0880001 4294794583
-0.025182614 0.024544062 1.087 4294927708
-0.023283631 0.024544062 1.087 4294928222
-0.021384647 0.024544062 1.087 4294400852
-0.019485664 0.024544062 1.087 4292497483
-0.017602859 0.024566643 1.0880001 4291380291
-0.015702128 0.024566643 1.0880001 4288753200
-0.013788711 0.024544062 1.087 4285471773
-0.011845974 0.024453742 1.0829999 4285800993
-0.009935597 0.024408583 1.081 4288427314
-0.0080396514 0.024386005 1.08 4290396991
-0.0061471993 0.024363425 1.079 4291907147
-0.0042621912 0.024363425 1.079 4292103500
-0.0023771834 0.024363425 1.079 4292956240
-0.00049263169 0.024386005 1.08 4292496461
0.001395414 0.024408583 1.081 4292627532
0.0032869538 0.024431163 1.082 4293480784
0.0051772026 0.024431163 1.082 4293874259
0.0070739831 0.024453742 1.0829999 4294267735
0.0089659784 0.024453742 1.0829999 4294136151
0.010847949 0.024431163 1.082 4294857563
0.012738198 0.024431163 1.082 4294135896
0.014614927 0.024408583 1.081 4294398298
0.016503429 0.024408583 1.081 4293676632
0.01839193 0.024408583 1.081 4293480279
0.020261673 0.024386005 1.08 4292692306
0.022168934 0.024408583 1.081 4291773772
0.024057437 0.024408583 1.081 4290133315
0.025993941 0.024453742 1.0829999 4288623930
0.027988933 0.024544062 1.087 4285802282
-0.031021606 0.026560824 1.092 4289151808
-0.029060567 0.026512178 1.09 4291446854
-0.027106514 0.026463533 1.0880001 4293349968
-0.025182614 0.026439209 1.087 4294465875
-0.023283631 0.026439209 1.087 4294794581
-0.021364974 0.026414884 1.086 4293876050
-0.019467736 0.026414884 1.086 4292103753
-0.017554322 0.026390562 1.085 4289936443
-0.015644399 0.026366238 1.084 4287834410
-0.013725286 0.026317593 1.082 4287506728
-0.011813161 0.026268948 1.08 4290658621
-0.0099172145 0.026244624 1.079 4293547346
-0.0080247624 0.026220299 1.0779999 4294138455
-0.0061415019 0.026220299 1.0779999 4294401114
-0.004258241 0.026220299 1.0779999 4294335578
-0.0023749801 0.026220299 1.0779999 4294597723
-0.00049217558 0.026244624 1.079 4294203224
0.0013928324 0.026244624 1.079 4294465112
0.0032808783 0.026268948 1.08 4294399574
0.0051724175 0.026293268 1.081 4294596440
0.0070674517 0.026317593 1.082 4294859100
0.0089577008 0.026317593 1.082 4294924383
0.010847949 0.026317593 1.082 4294857821
0.012738198 0.026317593 1.082 4294529627
0.014628448 0.026317593 1.082 4294266970
0.016518695 0.026317593 1.082 4293151572
0.018408945 0.026317593 1.082 4292823377
0.020299194 0.026317593 1.082 4291577163
0.02220995 0.026341915 1.0829999 4290329925
0.024124201 0.026366238 1.084 4288164408
0.02637797 0.026731085 1.099 4286195756
-0.029087225 0.02843862 1.091 4289937215
-0.027106514 0.028360423 1.0880001 4291772998
-0.025182614 0.028334355 1.087 4293348940
-0.02326221 0.028308287 1.086 4293087307
-0.021345301 0.028282221 1.085 4293350478
-0.019431885 0.028256154 1.084 4291906631
-0.017521963 0.028230086 1.0829999 4290527294
-0.015615535 0.028204022 1.082 4288688688
-0.013699916 0.02815189 1.08 4291575871
-0.011791284 0.028099755 1.0779999 4293021004
-0.009898833 0.028073689 1.077 4294465879
-0.0080173193 0.028073689 1.077 4294925917
-0.006135805 0.028073689 1.077 4294926174
-0.0042542913 0.028073689 1.077 4294926173
-0.0023727773 0.028073689 1.077 4294926430
-0.0004917194 0.028099755 1.0779999 4294925917
0.0013928324 0.028125823 1.079 4294925403
0.0032808783 0.02815189 1.08 4294925660
0.0051724175 0.028177954 1.081 4294728282
0.0070674517 0.028204022 1.082 4294924893
0.0089577008 0.028204022 1.082 4294925152
0.010857974 0.028230086 1.0829999 4294924127
0.01274997 0.028230086 1.0829999 4294004312
0.014641966 0.028230086 1.0829999 4293151315
0.016533962 0.028230086 1.0829999 4292430161
0.018425958 0.028230086 1.0829999 4291315020
0.020336716 0.028256154 1.084 4289739842
0.022271473 0.028308287 1.086 4287902007
-0.029140551 0.030396363 1.0930001 4287180591
-0.027106514 0.030257313 1.0880001 4289476665
-0.025159447 0.03020169 1.086 4291904836
-0.023219371 0.03014607 1.084 4292955466
-0.021305954 0.030118259 1.0829999 4292562250
-0.019396033 0.030090451 1.082 4291709510
-0.017489605 0.03006264 1.081 4291511875
-0.015586671 0.030034833 1.08 4292297795
-0.013687231 0.030007022 1.079 4293215561
-0.011780347 0.029951401 1.077 4294726485
-0.009898833 0.029951401 1.077 4294925660
-0.0080173193 0.029951401 1.077 4294926175
-0.0061301077 0.02992359 1.076 4294925920
-0.0042542913 0.029951401 1.077 4294925919
-0.0023727773 0.029951401 1.077 4294926432
-0.0004917194 0.029979208 1.0779999 4294926174
0.0013928324 0.030007022 1.079 4294926173
0.0032808783 0.030034833 1.08 4294597465
0.0051724175 0.03006264 1.081 4294269272
0.0070674517 0.030090451 1.082 4294202712
0.0089659784 0.030118259 1.0829999 4293611861
0.010868001 0.03014607 1.084 4294267480
0.012761744 0.03014607 1.084 4292692304
0.014669007 0.030173883 1.085 4292102222
0.016564498 0.030173883 1.085 4291052105
0.018476998 0.03020169 1.086 4288689725
0.02041176 0.030257313 1.0880001 4286852659
-0.027106514 0.032154202 1.0880001 4289148726
-0.025136281 0.032065541 1.085 4291707969
-0.023197949 0.032006431 1.0829999 4292167237
-0.021286283 0.031976882 1.082 4292364872
-0.019378105 0.031947326 1.081 4292496713
-0.017473426 0.031917773 1.08 4292889672
-0.015572239 0.03188822 1.079 4293675594
-0.013674545 0.031858664 1.0779999 4293871694
-0.011780347 0.031829115 1.077 4294857047
-0.009898833 0.031829115 1.077 4294924637
-0.0080098743 0.031799559 1.076 4294925921
-0.0061301077 0.031799559 1.076 4294926177
-0.0042542913 0.031829115 1.077 4294926433
-0.0023727773 0.031829115 1.077 4294860895
-0.0004917194 0.031858664 1.0779999 4294860637
0.0013928324 0.03188822 1.079 4294203992
0.0032808783 0.031917773 1.08 4293285202
0.0051724175 0.031947326 1.081 4292628817
0.0070674517 0.031976882 1.082 4292890705
0.0089742579 0.032035988 1.084 4292167755
0.010878027 0.032065541 1.085 4291445832
0.012785289 0.032095093 1.086 4291183432
0.014696046 0.032124646 1.087 4288820796
0.016610298 0.032154202 1.0880001 4288362045
-0.027056683 0.033988494 1.086 4288624694
-0.025089946 0.033894606 1.0829999 4290921023
-0.02317653 0.03386331 1.082 4291774020
-0.021246936 0.033800717 1.08 4292890186
-0.019342255 0.033769418 1.079 4292955209
-0.017457247 0.033769418 1.079 4293938763
-0.015557806 0.033738121 1.0779999 4294134349
-0.01366186 0.033706825 1.077 4294789972
-0.011780347 0.033706825 1.077 4294922842
-0.009898833 0.033706825 1.077 4294924893
-0.0080173193 0.033706825 1.077 4294926432
-0.006135805 0.033706825 1.077 4294927202
-0.0042542913 0.033706825 1.077 4294335067
-0.0023749801 0.033738121 1.0779999 4294138457
-0.00049217558 0.033769418 1.079 4293679446
0.0013941232 0.033800717 1.08 4292629328
0.0032839158 0.03383201 1.081 4291447881
0.0051772026 0.03386331 1.082 4291185225
0.0070805149 0.033925902 1.084 4291249736
0.0089825373 0.033957202 1.085 4290068033
0.010898079 0.034019794 1.087 4289740098
0.012820608 0.034082387 1.089 4288362813
-0.027006855 0.03581582 1.084 4289872446
-0.02506678 0.035749737 1.082 4291184194
-0.023133691 0.035683658 1.08 4292299848
-0.021227263 0.035650618 1.079 4293021259
-0.019324327 0.035617575 1.0779999 4293808204
-0.017441066 0.035617575 1.0779999 4294791503
-0.015543375 0.035584535 1.077 4294790225
-0.01366186 0.035584535 1.077 4294330449
-0.011780347 0.035584535 1.077 4294331733
-0.009898833 0.035584535 1.077 4294399064
-0.0080173193 0.035584535 1.077 4293612629
-0.006135805 0.035584535 1.077 4293023060
-0.004258241 0.035617575 1.0779999 4292563024
-0.0023771834 0.035650618 1.079 4292300623
-0.00049263169 0.035683658 1.08 4291776075
0.001395414 0.035716698 1.081 4290988361
0.0032899915 0.035782777 1.0829999 4289872708
0.0051915571 0.03584886 1.085 4289413444
0.0071001109 0.035914943 1.087 4287640633
0.0090239309 0.036014061 1.09 4286263090
-0.02698194 0.037670951 1.0829999 4289151293
-0.025020447 0.037566602 1.08 4291907403
-0.023112269 0.037531815 1.079 4292956494
-0.021207588 0.037497029 1.0779999 4294202963
-0.019306403 0.037462249 1.077 4294792534
-0.017424889 0.037462249 1.077 4294857301
-0.015543375 0.037462249 1.077 4294462801
-0.01366186 0.037462249 1.077 4293806671
-0.011791284 0.037497029 1.0779999 4292166729
-0.0099080233 0.037497029 1.0779999 4289804605
-0.0080322074 0.037531815 1.079 4290986821
-0.0061471993 0.037531815 1.079 4290790470
-0.0042661414 0.037566602 1.08 4289937732
-0.0023815897 0.037601382 1.081 4289018943
-0.00049400009 0.037670951 1.0829999 4287379000
0.0014018683 0.0377753 1.086 4286328371
-0.026957028 0.039522596 1.082 4289677381
-0.024997277 0.039413016 1.079 4291907663
-0.023090849 0.039376486 1.0779999 4293350228
